# .PCD v0.7 - Point Cloud Data file format
VERSION 0.7
FIELDS x y z rgb
SIZE 4 4 4 4
TYPE F F F F
COUNT 1 1 1 1
WIDTH 964
HEIGHT 1
VIEWPOINT 0 0 0 1 0 0 0
POINTS 964
DATA ascii
0.24322417 -2.1420019 0.0078295469 8.1200846e-39
0.25499138 -2.1420016 0.0078297853 8.1200846e-39
0.26675865 -2.1420016 0.0078297853 8.1200846e-39
0.27617243 -2.1420016 0.0078297853 8.1200846e-39
0.28558624 -2.1420016 0.0078297853 8.1200846e-39
0.29500002 -2.1420016 0.0078297853 8.1200846e-39
0.30441383 -2.1420016 0.0078297853 8.1200846e-39
0.31382757 -2.1420014 0.0078299046 8.1200846e-39
0.32324138 -2.1420016 0.007829845 8.1200846e-39
0.33500862 -2.1420016 0.0078297853 8.1200846e-39
0.34677589 -2.1420016 0.0078297853 8.1204433e-39
0.3561897 -2.1420016 0.0078297853 8.1204433e-39
0.36560348 -2.1420016 0.0078297853 8.1204433e-39
0.37501726 -2.1420016 0.0078297853 8.1204433e-39
0.38443106 -2.1420016 0.0078297853 8.1204433e-39
0.3938449 -2.1420019 0.0078295469 8.2122802e-39
0.40327981 -2.1421168 0.0077408552 8.3973918e-39
0.41288781 -2.143153 0.006942451 8.4895888e-39
0.42495799 -2.1446908 0.0057571731 8.5817844e-39
0.43704483 -2.1462317 0.0045699477 8.6739814e-39
0.44716141 -2.1449821 0.0035760801 8.6743402e-39
0.45585164 -2.1448185 0.0027223825 8.7661771e-39
0.46454048 -2.1446526 0.0018689632 8.7665372e-39
0.47465175 -2.1433952 0.00087577105 8.7665386e-39
0.48430845 -2.1444223 8.1419945e-05 1.1528431e-38
0.49376643 -2.1445255 1.6689301e-06 1.4290323e-38
0.50320172 -2.1445255 1.6689301e-06 1.4290323e-38
0.51499587 -2.1445255 1.6689301e-06 1.4290323e-38
0.52679014 -2.1445255 1.6689301e-06 1.4290323e-38
0.53622544 -2.1445255 1.6689301e-06 1.4290323e-38
0.54566073 -2.1445255 1.6689301e-06 1.4290323e-38
0.55509609 -2.1445255 1.6689301e-06 1.4290323e-38
0.56453145 -2.1445255 1.6689301e-06 1.4290323e-38
0.57396674 -2.1445255 1.6689301e-06 1.4290323e-38
0.58340204 -2.1445255 1.6689301e-06 1.4290323e-38
0.59519619 -2.1445255 1.6689301e-06 1.4290323e-38
0.6069904 -2.1445255 1.6689301e-06 1.4290323e-38
0.61642575 -2.1445255 1.6689301e-06 1.4290323e-38
0.62586105 -2.1445255 1.6689301e-06 1.4290323e-38
0.63529634 -2.1445255 1.6689301e-06 1.4290323e-38
0.6447317 -2.1445255 1.6689301e-06 1.4290323e-38
0.65416706 -2.1445255 1.6689301e-06 1.4290323e-38
0.66360235 -2.1445255 1.6689301e-06 1.4290323e-38
0.67303765 -2.1445255 1.6689301e-06 1.4290323e-38
0.68483186 -2.1445255 1.6689301e-06 1.4290323e-38
0.69662601 -2.1445255 1.6689301e-06 1.4290323e-38
0.70606136 -2.1445255 1.6689301e-06 1.4290323e-38
0.71549666 -2.1445255 1.6689301e-06 1.4290323e-38
0.72493196 -2.1445255 1.6689301e-06 1.4290323e-38
0.73436737 -2.1445255 1.6689301e-06 1.4290323e-38
0.74380267 -2.1445255 1.6689301e-06 1.4290323e-38
0.75323796 -2.1445255 1.6689301e-06 1.4290323e-38
0.76503211 -2.1445255 1.6689301e-06 1.4290323e-38
0.77682626 -2.1445255 1.6689301e-06 1.4290323e-38
0.78626168 -2.1445255 1.6689301e-06 1.4290323e-38
0.79569697 -2.1445255 1.6689301e-06 1.4290323e-38
0.80513227 -2.1445255 1.6689301e-06 1.4290323e-38
0.81456763 -2.1445255 1.6689301e-06 1.4290323e-38
0.82400298 -2.1445255 1.6689301e-06 1.4290323e-38
0.83343828 -2.1445255 1.6689301e-06 1.4290323e-38
0.84523243 -2.1445255 1.6689301e-06 1.4290323e-38
0.85702658 -2.1445255 1.6689301e-06 1.4290323e-38
0.86646193 -2.1445255 1.6689301e-06 1.4290323e-38
0.87589729 -2.1445255 1.6689301e-06 1.4290323e-38
0.88533258 -2.1445255 1.6689301e-06 1.4290323e-38
0.89476788 -2.1445255 1.6689301e-06 1.4290323e-38
0.90420324 -2.1445255 1.6689301e-06 1.4290323e-38
0.91363859 -2.1445255 1.6689301e-06 1.4290323e-38
0.92307389 -2.1445255 1.6689301e-06 1.4290323e-38
0.93486804 -2.1445255 1.6689301e-06 1.4290323e-38
0.94666219 -2.1445255 1.6689301e-06 1.4290323e-38
0.95609754 -2.1445255 1.6689301e-06 1.4290323e-38
0.9655329 -2.1445255 1.6689301e-06 1.4290323e-38
0.97496819 -2.1445255 1.6689301e-06 1.4290323e-38
0.98440349 -2.1445255 1.6689301e-06 1.4290323e-38
0.99383891 -2.1445255 1.6689301e-06 1.4290323e-38
1.0032742 -2.1445255 1.6689301e-06 1.4290323e-38
1.0150684 -2.1445255 1.6689301e-06 1.4290323e-38
1.0268624 -2.1445255 1.6689301e-06 1.4290323e-38
1.0362978 -2.1445255 1.6689301e-06 1.4290323e-38
1.0457332 -2.1445258 1.5497208e-06 1.4290323e-38
1.0551686 -2.1445258 1.5497208e-06 1.4290323e-38
1.0646038 -2.1445258 1.5497208e-06 1.4290323e-38
1.0740392 -2.1445258 1.5497208e-06 1.4290323e-38
1.0834745 -2.1445258 1.5497208e-06 1.4290323e-38
1.0952687 -2.1445258 1.5497208e-06 1.4290323e-38
1.1070628 -2.1445258 1.5497208e-06 1.4290323e-38
1.1164982 -2.1445258 1.5497208e-06 1.4290323e-38
1.1259334 -2.1445258 1.5497208e-06 1.4290323e-38
1.1353688 -2.1445258 1.5497208e-06 1.4290323e-38
1.1448042 -2.1445258 1.5497208e-06 1.4290323e-38
1.1542394 -2.1445258 1.5497208e-06 1.4290323e-38
1.1636748 -2.1445258 1.5497208e-06 1.4290323e-38
1.1731102 -2.1445258 1.5497208e-06 1.4290323e-38
1.1849042 -2.1445258 1.5497208e-06 1.4290323e-38
1.1966984 -2.1445258 1.5497208e-06 1.4290323e-38
1.2061338 -2.1445258 1.5497208e-06 1.4290323e-38
1.2155691 -2.1445258 1.5497208e-06 1.4290323e-38
1.2250044 -2.1445258 1.5497208e-06 1.4290323e-38
1.2344398 -2.1445258 1.5497208e-06 1.4290323e-38
1.243875 -2.1445258 1.5497208e-06 1.4290323e-38
1.2533104 -2.1445258 1.5497208e-06 1.4290323e-38
1.2651047 -2.1445258 1.5497208e-06 1.4290323e-38
1.2768989 -2.1445258 1.5497208e-06 1.4290323e-38
1.286334 -2.1445258 1.5497208e-06 1.4290323e-38
1.2957695 -2.1445258 1.5497208e-06 1.4290323e-38
1.3052047 -2.1445258 1.5497208e-06 1.4290323e-38
1.31464 -2.1445258 1.5497208e-06 1.4290323e-38
1.3240755 -2.1445258 1.5497208e-06 1.4290323e-38
1.3335108 -2.1445258 1.5497208e-06 1.4290323e-38
1.3429461 -2.1445258 1.5497208e-06 1.4290323e-38
1.3547403 -2.1445258 1.5497208e-06 1.4290323e-38
1.3665345 -2.1445258 1.5497208e-06 1.4290323e-38
1.3759696 -2.1445258 1.5497208e-06 1.4290323e-38
1.3854051 -2.1445258 1.5497208e-06 1.4290323e-38
1.3948405 -2.1445258 1.5497208e-06 1.4290323e-38
1.4042757 -2.1445258 1.5497208e-06 1.4290323e-38
1.4137111 -2.1445258 1.5497208e-06 1.4290323e-38
1.4231464 -2.1445258 1.5497208e-06 1.4290323e-38
1.4349405 -2.1445258 1.5497208e-06 1.4290323e-38
1.4467347 -2.1445258 1.5497208e-06 1.4290323e-38
1.4561701 -2.1445258 1.5497208e-06 1.4290323e-38
1.4656054 -2.1445258 1.5497208e-06 1.4290323e-38
1.4750407 -2.1445258 1.5497208e-06 1.4290323e-38
1.4844761 -2.1445258 1.5497208e-06 1.4290323e-38
1.4939113 -2.1445258 1.5497208e-06 1.4290323e-38
1.5033467 -2.1445258 1.5497208e-06 1.4290323e-38
1.5151409 -2.1445258 1.5497208e-06 1.4290323e-38
1.5269351 -2.1445258 1.5497208e-06 1.4290323e-38
-1.4814516 -2.1369302 1.4305115e-06 1.4290323e-38
-1.4743931 -2.1369302 1.4305115e-06 1.4290323e-38
-1.4649819 -2.1369302 1.4305115e-06 1.4290323e-38
-1.4555706 -2.1369302 1.4305115e-06 1.4290323e-38
-1.4461594 -2.1369302 1.4305115e-06 1.4290323e-38
-1.436748 -2.1369302 1.4305115e-06 1.4290323e-38
-1.424984 -2.1369302 1.4305115e-06 1.3644953e-38
-1.4132199 -2.1369302 1.4305115e-06 8.0210198e-39
-1.4038086 -2.1369302 1.4305115e-06 7.3756504e-39
-1.3943973 -2.1369302 1.4305115e-06 7.3756504e-39
-1.384986 -2.1369302 1.4305115e-06 7.3756504e-39
-1.3755747 -2.1369302 1.4305115e-06 7.3756504e-39
-1.3661635 -2.1369302 1.4305115e-06 7.3756504e-39
-1.3567522 -2.1369302 1.4305115e-06 7.3756504e-39
-1.3449882 -2.1369302 1.4305115e-06 7.3756504e-39
-1.3332241 -2.1369302 1.4305115e-06 7.3756504e-39
-1.3238127 -2.1369302 1.4305115e-06 7.3756504e-39
-1.3144014 -2.1369302 1.4305115e-06 7.3756504e-39
-1.3049902 -2.1369302 1.4305115e-06 7.3756504e-39
-1.295579 -2.1369302 1.4305115e-06 7.3756504e-39
-1.2861676 -2.1369302 1.4305115e-06 7.3756504e-39
-1.2767563 -2.1369302 1.4305115e-06 7.3756504e-39
-1.2649921 -2.1369302 1.5894572e-06 7.3756504e-39
-1.2532281 -2.1369302 1.6689301e-06 7.3756504e-39
-1.2438167 -2.1369302 1.6689301e-06 7.3756504e-39
-1.2344055 -2.1369302 1.6689301e-06 7.3756504e-39
-1.2249942 -2.1369302 1.6689301e-06 7.3756504e-39
-1.2155828 -2.1369302 1.6689301e-06 7.3756504e-39
-1.2061716 -2.1369302 1.6689301e-06 7.3756504e-39
-1.1967604 -2.1369302 1.6689301e-06 7.3756504e-39
-1.1849962 -2.1369302 1.6689301e-06 7.3756504e-39
-1.1732322 -2.1369302 1.6689301e-06 7.3756504e-39
-1.1638209 -2.1369302 1.6689301e-06 7.3756504e-39
-1.1544096 -2.1369302 1.6689301e-06 7.3756504e-39
-1.1449983 -2.1369302 1.6689301e-06 7.3756504e-39
-1.1355871 -2.1369302 1.6689301e-06 7.3756504e-39
-1.1261758 -2.1369302 1.6689301e-06 7.3756504e-39
-1.1167645 -2.1369302 1.6689301e-06 7.3756504e-39
-1.1050005 -2.1369302 1.6689301e-06 7.3756504e-39
-1.0932363 -2.1369302 1.6689301e-06 7.3756504e-39
-1.0838251 -2.1369302 1.6689301e-06 7.3756504e-39
-1.0744138 -2.1369302 1.6689301e-06 7.3756504e-39
-1.0650024 -2.1369302 1.6689301e-06 7.3756504e-39
-1.0555912 -2.1369302 1.6689301e-06 7.3756504e-39
-1.04618 -2.1369302 1.6689301e-06 7.3756504e-39
-1.0367687 -2.1369302 1.6689301e-06 7.3756504e-39
-1.0250045 -2.1369302 1.6689301e-06 7.3756504e-39
-1.0132405 -2.1369302 1.6689301e-06 7.3756504e-39
-1.0038292 -2.1369302 1.6689301e-06 7.3756504e-39
-0.99441785 -2.1369302 1.6689301e-06 7.3756504e-39
-0.98500651 -2.13693 1.7285347e-06 7.3756504e-39
-0.97559524 -2.13693 1.7881393e-06 7.3756504e-39
-0.9661839 -2.13693 1.7881393e-06 7.3756504e-39
-0.95677269 -2.13693 1.7881393e-06 7.3756504e-39
-0.94500858 -2.13693 1.7881393e-06 7.3756504e-39
-0.93324447 -2.13693 1.7881393e-06 7.3756504e-39
-0.92383319 -2.13693 1.7881393e-06 7.3756504e-39
-0.91442192 -2.13693 1.7881393e-06 7.3756504e-39
-0.90501064 -2.13693 1.7881393e-06 7.3756504e-39
-0.89559937 -2.13693 1.7881393e-06 7.3756504e-39
-0.88618809 -2.13693 1.7881393e-06 7.3756504e-39
-0.87677681 -2.13693 1.7881393e-06 7.3756504e-39
-0.86501271 -2.13693 1.7881393e-06 7.3756504e-39
-0.8532486 -2.13693 1.7881393e-06 7.3756504e-39
-0.84383738 -2.13693 1.7881393e-06 7.3756504e-39
-0.83442605 -2.13693 1.7881393e-06 7.3756504e-39
-0.82501483 -2.13693 1.7881393e-06 7.3756504e-39
-0.81560349 -2.13693 1.7881393e-06 7.3756504e-39
-0.80619228 -2.13693 1.7881393e-06 7.3756504e-39
-0.79678094 -2.13693 1.7881393e-06 7.3756504e-39
-0.78501683 -2.13693 1.7881393e-06 7.3756504e-39
-0.77325279 -2.13693 1.7881393e-06 7.3756504e-39
-0.76384151 -2.13693 1.7881393e-06 7.3756504e-39
-0.75443023 -2.13693 1.7881393e-06 7.3756504e-39
-0.74501896 -2.13693 1.7881393e-06 7.3756504e-39
-0.73560768 -2.13693 1.7881393e-06 7.3756504e-39
-0.72619641 -2.13693 1.7881393e-06 7.3756504e-39
-0.71678513 -2.13693 1.7881393e-06 7.3756504e-39
-0.70502108 -2.13693 1.7881393e-06 7.3756504e-39
-0.69325686 -2.1369298 1.9073486e-06 7.3756504e-39
-0.68384564 -2.1369298 1.9073486e-06 7.3756504e-39
-0.6744343 -2.1369298 1.9073486e-06 7.3756504e-39
-0.66502309 -2.1369298 1.9073486e-06 7.3756504e-39
-0.65561175 -2.1369298 1.9073486e-06 7.3756504e-39
-0.64620054 -2.1369298 1.9073486e-06 7.3756504e-39
-0.6367892 -2.1369298 1.9073486e-06 7.4689292e-39
-0.62710947 -2.136066 0.00067263842 8.4895888e-39
-0.61732233 -2.1348274 0.0016339421 8.3973918e-39
-0.6051054 -2.1332817 0.0028338034 8.3048374e-39
-0.59372163 -2.1356301 0.0039518476 8.2126404e-39
-0.58396161 -2.1343927 0.0049104095 8.1204433e-39
-0.57500279 -2.1370411 0.0057902932 8.1197245e-39
-0.56525254 -2.1358027 0.0067480206 8.0275274e-39
-0.55551398 -2.1345663 0.0077044368 7.9353318e-39
-0.54578686 -2.1333308 0.00865978 7.8431348e-39
-0.53607541 -2.132113 0.0096019506 7.7509391e-39
-0.52661854 -2.1318202 0.0098283291 7.7509391e-39
-0.51489592 -2.1318202 0.0098283291 7.7509391e-39
-0.50317335 -2.1318202 0.0098283291 7.7509391e-39
-0.49379519 -2.1318202 0.0098283291 7.7509391e-39
-0.48441708 -2.1318202 0.0098283887 7.7509391e-39
-0.47503898 -2.13182 0.0098284483 7.7509391e-39
-0.4656609 -2.13182 0.0098284483 7.7509391e-39
-0.45628279 -2.13182 0.0098284483 7.7509391e-39
-0.44690469 -2.13182 0.0098284483 7.7509391e-39
-0.43518209 -2.13182 0.0098284483 7.7509391e-39
-0.42345947 -2.13182 0.0098285675 7.7509391e-39
-0.41408134 -2.13182 0.0098286867 7.7509391e-39
-0.40470323 -2.13182 0.0098286867 7.7509391e-39
-0.39532515 -2.13182 0.0098286867 7.8427746e-39
-0.38594708 -2.13182 0.0098286867 7.8427746e-39
-0.37656894 -2.13182 0.0098286867 7.8427746e-39
-0.36484632 -2.13182 0.0098287268 7.8427746e-39
-0.35312369 -2.1318197 0.0098288059 7.8427746e-39
-0.34374562 -2.1318197 0.0098288059 7.8427746e-39
-0.33436748 -2.1318197 0.0098288059 7.8427746e-39
-0.32498941 -2.1318197 0.0098288059 7.842776e-39
-0.31561133 -2.1318197 0.0098288059 7.842776e-39
-0.30623323 -2.1318197 0.0098288059 7.842776e-39
-0.29685512 -2.1318195 0.0098289251 7.8431348e-39
-0.2851325 -2.1318195 0.0098289251 7.8431348e-39
-0.27340987 -2.1318195 0.0098289251 7.8431348e-39
-0.2640318 -2.1318195 0.0098289251 7.8431348e-39
-0.25465372 -2.1318195 0.0098289251 7.8431348e-39
-0.2452756 -2.1318195 0.0098289251 7.8431348e-39
-0.23589751 -2.1318195 0.0098289251 7.8431348e-39
-0.22651942 -2.1318195 0.0098289251 7.8431348e-39
-0.21479683 -2.1318195 0.0098289251 7.8431348e-39
-0.20307419 -2.1318195 0.0098289251 7.8431348e-39
-0.19369611 -2.1318195 0.0098289251 7.8431348e-39
-0.18431801 -2.1318195 0.0098289251 7.8431348e-39
-0.1749399 -2.1318192 0.0098291636 7.8431348e-39
-0.16556181 -2.1318192 0.0098291636 7.8431348e-39
-0.15618372 -2.1318192 0.0098291636 7.8431348e-39
-0.14680563 -2.1318192 0.0098291636 7.8431348e-39
-0.13977206 -2.1318192 0.0098291636 7.8431348e-39
-0.034268532 -2.1318188 0.009829402 7.8431362e-39
-0.024890445 -2.1318188 0.009829402 7.8434949e-39
-0.015512355 -2.1318188 0.009829402 7.9353304e-39
-0.006134267 -2.1318188 0.009829402 7.9353304e-39
0.0032438226 -2.1318188 0.0098295212 7.9353304e-39
0.014966433 -2.1318188 0.0098296404 7.9353304e-39
0.026689045 -2.1318188 0.0098296404 7.9353304e-39
0.036067132 -2.1318188 0.0098296404 7.9353304e-39
0.045445219 -2.1318188 0.0098296404 7.9353304e-39
0.054823309 -2.1318188 0.0098296404 7.9353304e-39
0.0642014 -2.1318188 0.0098297 7.9353304e-39
0.073579475 -2.1318185 0.0098297596 7.9353304e-39
0.085302085 -2.1318185 0.0098297596 7.9353304e-39
0.097024694 -2.1318185 0.0098297596 7.9353318e-39
0.10640278 -2.1318185 0.0098297596 7.9353318e-39
0.11578088 -2.1318185 0.0098297596 7.9353318e-39
0.12515895 -2.1318183 0.0098298192 7.9353318e-39
0.13453704 -2.1318183 0.0098298788 7.9353318e-39
0.14391512 -2.1318183 0.0098298788 7.9353318e-39
0.15329321 -2.1318183 0.0098298788 7.9353318e-39
0.16501582 -2.1318183 0.0098298788 7.9353318e-39
0.17673843 -2.1318183 0.0098298788 7.9353318e-39
0.18611652 -2.1318183 0.0098298788 7.9353318e-39
0.19549459 -2.1318183 0.0098298788 7.9353318e-39
0.20487268 -2.1318183 0.0098298788 7.9353318e-39
0.21425077 -2.1318183 0.0098298788 7.9353318e-39
0.22362885 -2.1318183 0.0098298788 7.9353318e-39
0.23300694 -2.1318183 0.0098298788 7.9353318e-39
0.24472956 -2.1318183 0.0098299189 7.9353318e-39
0.25645214 -2.1318181 0.009829998 7.9356905e-39
0.26583022 -2.1318181 0.009829998 7.9356905e-39
0.27520832 -2.1318181 0.009829998 7.9356905e-39
0.2845864 -2.1318181 0.009829998 7.9356905e-39
0.29396448 -2.1318181 0.009829998 7.9356905e-39
0.30334258 -2.1318183 0.0098299384 7.9356905e-39
0.31506515 -2.1318181 0.009829998 7.9356919e-39
0.3267878 -2.1318181 0.009829998 7.9356919e-39
0.33616588 -2.1318181 0.009829998 7.9356919e-39
0.34554395 -2.1318181 0.009829998 7.9356919e-39
0.35492203 -2.1318181 0.009829998 7.9356919e-39
0.3643001 -2.1318181 0.009829998 8.0278876e-39
0.37367824 -2.1318183 0.0098298788 8.1200846e-39
0.38307807 -2.1319427 0.0097334981 8.304836e-39
0.39504254 -2.1332853 0.0086951656 8.3973932e-39
0.40705445 -2.13481 0.0075157881 8.4895888e-39
0.41667727 -2.1360323 0.0065705776 8.5817844e-39
0.42631131 -2.1372557 0.0056242943 8.5817858e-39
0.43541554 -2.1346257 0.0047298968 8.67398e-39
0.44406939 -2.1344597 0.0038798649 8.6739814e-39
0.45414725 -2.1332092 0.0028899312 8.6743416e-39
0.46380064 -2.1344311 0.0019415617 8.7665372e-39
0.47346535 -2.135654 0.00099229813 8.7665386e-39
0.48311323 -2.1367512 0.00014054775 1.1528431e-38
0.49491668 -2.1369302 1.6689301e-06 1.4290323e-38
0.50668073 -2.1369302 1.6689301e-06 1.4290323e-38
0.51609206 -2.1369302 1.6689301e-06 1.4290323e-38
0.52550328 -2.1369302 1.6689301e-06 1.4290323e-38
0.53491461 -2.1369302 1.6689301e-06 1.4290323e-38
0.54432583 -2.1369302 1.6689301e-06 1.4290323e-38
0.55373716 -2.1369302 1.6689301e-06 1.4290323e-38
0.56314838 -2.1369302 1.6689301e-06 1.4290323e-38
0.57491249 -2.1369302 1.6689301e-06 1.4290323e-38
0.5866766 -2.1369302 1.6689301e-06 1.4290323e-38
0.59608793 -2.1369302 1.6689301e-06 1.4290323e-38
0.60549915 -2.1369302 1.6689301e-06 1.4290323e-38
0.61491048 -2.1369302 1.6689301e-06 1.4290323e-38
0.6243217 -2.1369302 1.6689301e-06 1.4290323e-38
0.63373303 -2.1369302 1.6689301e-06 1.4290323e-38
0.64314425 -2.1369302 1.6689301e-06 1.4290323e-38
0.65490836 -2.1369302 1.6689301e-06 1.4290323e-38
0.66667247 -2.1369302 1.6689301e-06 1.4290323e-38
0.67608374 -2.1369302 1.6689301e-06 1.4290323e-38
0.68549502 -2.1369302 1.6689301e-06 1.4290323e-38
0.69490629 -2.1369302 1.6689301e-06 1.4290323e-38
0.70431757 -2.1369302 1.6689301e-06 1.4290323e-38
0.71372885 -2.1369302 1.6689301e-06 1.4290323e-38
0.72314012 -2.1369302 1.6689301e-06 1.4290323e-38
0.73490423 -2.1369302 1.6689301e-06 1.4290323e-38
0.74666834 -2.1369302 1.6689301e-06 1.4290323e-38
0.75607967 -2.1369302 1.4305115e-06 1.4290323e-38
0.76549095 -2.1369302 1.4305115e-06 1.4290323e-38
0.77490222 -2.1369302 1.4305115e-06 1.4290323e-38
0.7843135 -2.1369302 1.4305115e-06 1.4290323e-38
0.79372478 -2.1369302 1.4305115e-06 1.4290323e-38
0.80313605 -2.1369302 1.4305115e-06 1.4290323e-38
0.81490016 -2.1369302 1.4305115e-06 1.4290323e-38
0.82666421 -2.1369302 1.4305115e-06 1.4290323e-38
0.83607554 -2.1369302 1.4305115e-06 1.4290323e-38
0.84548676 -2.1369302 1.4305115e-06 1.4290323e-38
0.8548981 -2.1369302 1.4305115e-06 1.4290323e-38
0.86430931 -2.1369302 1.4305115e-06 1.4290323e-38
0.87372065 -2.1369302 1.4305115e-06 1.4290323e-38
0.88313186 -2.1369302 1.4305115e-06 1.4290323e-38
0.89489603 -2.1369302 1.4305115e-06 1.4290323e-38
0.90666008 -2.1369302 1.4305115e-06 1.4290323e-38
0.91607141 -2.1369302 1.4305115e-06 1.4290323e-38
0.92548263 -2.1369302 1.4305115e-06 1.4290323e-38
0.93489397 -2.1369302 1.4305115e-06 1.4290323e-38
0.94430518 -2.1369302 1.4305115e-06 1.4290323e-38
0.95371652 -2.1369302 1.4305115e-06 1.4290323e-38
0.96312773 -2.1369302 1.4305115e-06 1.4290323e-38
0.9748919 -2.1369302 1.4305115e-06 1.4290323e-38
0.98665595 -2.1369302 1.4305115e-06 1.4290323e-38
0.99606723 -2.1369302 1.4305115e-06 1.4290323e-38
1.0054785 -2.1369302 1.4305115e-06 1.4290323e-38
1.0148897 -2.1369302 1.4305115e-06 1.4290323e-38
1.0243011 -2.1369302 1.4305115e-06 1.4290323e-38
1.0337123 -2.1369302 1.4305115e-06 1.4290323e-38
1.0431236 -2.1369302 1.4305115e-06 1.4290323e-38
1.0548877 -2.1369302 1.4305115e-06 1.4290323e-38
1.0666518 -2.1369302 1.4305115e-06 1.4290323e-38
1.076063 -2.1369302 1.4305115e-06 1.4290323e-38
1.0854743 -2.1369302 1.4305115e-06 1.4290323e-38
1.0948856 -2.1369302 1.4305115e-06 1.4290323e-38
1.1042969 -2.1369302 1.4305115e-06 1.4290323e-38
1.1137081 -2.1369302 1.4305115e-06 1.4290323e-38
1.1231194 -2.1369302 1.4305115e-06 1.4290323e-38
1.1348835 -2.1369302 1.4305115e-06 1.4290323e-38
1.1466476 -2.1369302 1.4305115e-06 1.4290323e-38
1.1560589 -2.1369302 1.4305115e-06 1.4290323e-38
1.1654701 -2.1369302 1.4305115e-06 1.4290323e-38
1.1748815 -2.1369302 1.4305115e-06 1.4290323e-38
1.1842928 -2.1369302 1.4305115e-06 1.4290323e-38
1.193704 -2.1369302 1.4305115e-06 1.4290323e-38
1.2031152 -2.1369302 1.4305115e-06 1.4290323e-38
1.2148794 -2.1369302 1.4305115e-06 1.4290323e-38
1.2266434 -2.1369302 1.4305115e-06 1.4290323e-38
1.2360548 -2.1369302 1.4305115e-06 1.4290323e-38
1.245466 -2.1369302 1.4305115e-06 1.4290323e-38
1.2548773 -2.1369302 1.4305115e-06 1.4290323e-38
1.2642885 -2.1369302 1.4305115e-06 1.4290323e-38
1.2737 -2.1369305 1.3709068e-06 1.4290323e-38
1.2831112 -2.1369305 1.3113022e-06 1.4290323e-38
1.2948753 -2.1369305 1.3113022e-06 1.4290323e-38
1.3066394 -2.1369305 1.3113022e-06 1.4290323e-38
1.3160508 -2.1369305 1.3113022e-06 1.4290323e-38
1.325462 -2.1369305 1.3113022e-06 1.4290323e-38
1.3348733 -2.1369305 1.3113022e-06 1.4290323e-38
1.3442845 -2.1369305 1.3113022e-06 1.4290323e-38
1.3536959 -2.1369305 1.3113022e-06 1.4290323e-38
1.3631071 -2.1369305 1.3113022e-06 1.4290323e-38
1.3748713 -2.1369305 1.3113022e-06 1.4290323e-38
1.3866353 -2.1369305 1.3113022e-06 1.4290323e-38
1.3960466 -2.1369305 1.3113022e-06 1.4290323e-38
1.4054579 -2.1369305 1.3113022e-06 1.4290323e-38
1.4148692 -2.1369305 1.3113022e-06 1.4290323e-38
1.4242804 -2.1369305 1.3113022e-06 1.4290323e-38
1.4336917 -2.1369305 1.3113022e-06 1.4290323e-38
1.443103 -2.1369305 1.3113022e-06 1.4290323e-38
1.454867 -2.1369305 1.3113022e-06 1.4290323e-38
1.4666312 -2.1369305 1.3113022e-06 1.4290323e-38
1.4760425 -2.1369305 1.3113022e-06 1.4290323e-38
1.4854537 -2.1369305 1.3113022e-06 1.4290323e-38
1.4948651 -2.1369305 1.3113022e-06 1.4290323e-38
1.5042763 -2.1369305 1.3113022e-06 1.4290323e-38
1.5136876 -2.1369305 1.3113022e-06 1.4290323e-38
1.5230988 -2.1369305 1.3113022e-06 1.4290323e-38
-1.4747964 -2.1268675 1.5497208e-06 1.4290323e-38
-1.4663486 -2.1256144 1.5497208e-06 1.4290323e-38
-1.4556619 -2.1248627 1.5497208e-06 1.4290323e-38
-1.4442214 -2.1263661 1.5497208e-06 1.4290323e-38
-1.4335346 -2.1256144 1.5497208e-06 1.4290323e-38
-1.4241593 -2.1256144 1.5497208e-06 1.3737149e-38
-1.4147837 -2.1256144 1.5497208e-06 8.2054111e-39
-1.4054084 -2.1256144 1.5497208e-06 7.3756504e-39
-1.3960328 -2.1256144 1.5497208e-06 7.3756504e-39
-1.3853639 -2.1248627 1.5497208e-06 7.3756504e-39
-1.3749411 -2.1256142 1.6689301e-06 7.3756504e-39
-1.3645098 -2.1263661 1.6927719e-06 7.3756504e-39
-1.3538432 -2.1256144 1.6689301e-06 7.3756504e-39
-1.3444679 -2.1256142 1.6689301e-06 7.3756504e-39
-1.3350925 -2.1256142 1.6689301e-06 7.3756504e-39
-1.325717 -2.1256142 1.6689301e-06 7.3756504e-39
-1.3163415 -2.1256144 1.6689301e-06 7.3756504e-39
-1.3056929 -2.1248624 1.6450882e-06 7.3756504e-39
-1.2952498 -2.1256144 1.6689301e-06 7.3756504e-39
-1.2847984 -2.1263661 1.6927719e-06 7.3756504e-39
-1.274152 -2.1256144 1.6689301e-06 7.3756504e-39
-1.2647767 -2.1256144 1.6689301e-06 7.3756504e-39
-1.2554011 -2.1256144 1.6689301e-06 7.3756504e-39
-1.2460258 -2.1256142 1.6689301e-06 7.3756504e-39
-1.2353948 -2.1248622 1.6450882e-06 7.3756504e-39
-1.224934 -2.1256142 1.6689301e-06 7.3756504e-39
-1.2144647 -2.1263661 1.7404557e-06 7.3756504e-39
-1.2038362 -2.1256144 1.7881393e-06 7.3756504e-39
-1.1944607 -2.1256144 1.7881393e-06 7.3756504e-39
-1.1850853 -2.1256144 1.7881393e-06 7.3756504e-39
-1.1757098 -2.1256142 1.7881393e-06 7.3756504e-39
-1.1650969 -2.1248627 1.7881393e-06 7.3756504e-39
-1.154618 -2.1256144 1.7881393e-06 7.3756504e-39
-1.1452427 -2.1256144 1.7881393e-06 7.3756504e-39
-1.1347531 -2.1263661 1.7881393e-06 7.3756504e-39
-1.124145 -2.1256142 1.7881393e-06 7.3756504e-39
-1.1147695 -2.1256142 1.7881393e-06 7.3756504e-39
-1.1053941 -2.1256142 1.7881393e-06 7.3756504e-39
-1.0960186 -2.1256142 1.7881393e-06 7.3756504e-39
-1.0854257 -2.1248622 1.7881393e-06 7.3756504e-39
-1.0749269 -2.1256144 1.7881393e-06 7.3756504e-39
-1.0655514 -2.1256144 1.7881393e-06 7.3756504e-39
-1.0550417 -2.1263661 1.7881393e-06 7.3756504e-39
-1.0444536 -2.1256142 1.7881393e-06 7.3756504e-39
-1.0350783 -2.1256144 1.7881393e-06 7.3756504e-39
-1.0257027 -2.1256142 1.7881393e-06 7.3756504e-39
-1.0151279 -2.1248622 1.7881393e-06 7.3756504e-39
-1.004611 -2.1256142 1.7881393e-06 7.3756504e-39
-0.99523544 -2.1256142 1.7881393e-06 7.3756504e-39
-0.98470795 -2.1263661 1.7881393e-06 7.3756504e-39
-0.97413778 -2.1256142 1.7881393e-06 7.3756504e-39
-0.96476233 -2.1256142 1.7881393e-06 7.3756504e-39
-0.95538688 -2.1256142 1.7881393e-06 7.3756504e-39
-0.94482982 -2.1248627 1.7881393e-06 7.3756504e-39
-0.93429512 -2.1256142 1.7881393e-06 7.3756504e-39
-0.92491966 -2.1256142 1.847744e-06 7.3756504e-39
-0.91554421 -2.1256142 1.847744e-06 7.3756504e-39
-0.90499628 -2.1263661 1.835823e-06 7.3756504e-39
-0.89444649 -2.1256142 1.847744e-06 7.3756504e-39
-0.88507104 -2.1256142 1.847744e-06 7.3756504e-39
-0.87569559 -2.1256142 1.847744e-06 7.3756504e-39
-0.86515886 -2.1248624 1.859665e-06 7.3756504e-39
-0.85460377 -2.1256142 1.847744e-06 7.3756504e-39
-0.84522843 -2.1256142 1.847744e-06 7.3756504e-39
-0.83585292 -2.1256142 1.847744e-06 7.3756504e-39
-0.82528484 -2.1263661 1.835823e-06 7.3756504e-39
-0.8147552 -2.1256142 1.8775463e-06 7.3756504e-39
-0.80537975 -2.1256142 1.9073486e-06 7.3756504e-39
-0.79486078 -2.1248622 1.9073486e-06 7.3756504e-39
-0.78428793 -2.1256142 1.9073486e-06 7.3756504e-39
-0.77491254 -2.1256142 1.9073486e-06 7.3756504e-39
-0.76553708 -2.1256142 1.9073486e-06 7.3756504e-39
-0.75495112 -2.1263661 1.9073486e-06 7.3756504e-39
-0.74443936 -2.1256142 1.9073486e-06 7.3756504e-39
-0.73506391 -2.1256142 1.9073486e-06 7.3756504e-39
-0.72456282 -2.1248622 1.9073486e-06 7.3756504e-39
-0.71397215 -2.1256142 1.9073486e-06 7.3756504e-39
-0.7045967 -2.1256142 1.9073486e-06 7.3756504e-39
-0.69522125 -2.1256142 1.9073486e-06 7.3756504e-39
-0.68584579 -2.1256142 1.9073486e-06 7.3756504e-39
-0.67523962 -2.1263661 1.9073486e-06 7.3756504e-39
-0.66474807 -2.1256142 1.9073486e-06 7.3756504e-39
-0.65537268 -2.1256142 1.9073486e-06 7.3756504e-39
-0.64489186 -2.1248622 1.9073486e-06 7.3756504e-39
-0.63423961 -2.125483 0.00010424852 7.9324395e-39
-0.62453711 -2.1244311 0.0009252727 8.4892286e-39
-0.61563134 -2.1270652 0.0018000007 8.3973918e-39
-0.60588264 -2.1258364 0.0027574301 8.3048374e-39
-0.59614551 -2.124609 0.0037137866 8.2126404e-39
-0.58641994 -2.1233826 0.0046690106 8.2122802e-39
-0.57506478 -2.1257157 0.0057843029 8.027889e-39
-0.56535167 -2.1244888 0.0067383051 8.0275274e-39
-0.55590326 -2.1245489 0.0076661906 7.9353318e-39
-0.54428768 -2.1255865 0.0088071823 7.8431348e-39
-0.53459871 -2.1243608 0.0097586513 7.750579e-39
0.38688883 -2.1246982 0.0094966888 8.3973918e-39
0.39646354 -2.1259098 0.0085561872 8.4892286e-39
0.4060494 -2.1271229 0.007614553 8.4895888e-39
0.41513377 -2.12451 0.0067222118 8.5814243e-39
0.42472923 -2.1257219 0.0057796836 8.5817844e-39
0.43379754 -2.1231005 0.0048888922 8.5821445e-39
0.44340259 -2.1243114 0.0039453506 8.6739814e-39
0.45301887 -2.1255238 0.0030008554 8.6743416e-39
0.46505567 -2.1270416 0.0018183788 8.7665372e-39
0.47651538 -2.1247292 0.00069266558 8.7665386e-39
0.4860816 -2.1256018 1.1622906e-05 1.2724806e-38
0.49545988 -2.1256144 1.6689301e-06 1.4290323e-38
0.50483537 -2.1256144 1.6689301e-06 1.4290323e-38
0.51421076 -2.1256144 1.6689301e-06 1.4290323e-38
0.52486336 -2.1248627 1.6927719e-06 1.4290323e-38
0.53530252 -2.1256144 1.6689301e-06 1.4290323e-38
0.54467797 -2.1256144 1.6689301e-06 1.4290323e-38
0.55512786 -2.1263661 1.6450882e-06 1.4290323e-38
0.56577569 -2.1256144 1.6689301e-06 1.4290323e-38
0.57515115 -2.1256144 1.6689301e-06 1.4290323e-38
0.5845266 -2.1256144 1.6689301e-06 1.4290323e-38
0.59390205 -2.1256144 1.6689301e-06 1.4290323e-38
0.60453445 -2.1248627 1.6927719e-06 1.4290323e-38
0.61499381 -2.1256144 1.6689301e-06 1.4290323e-38
0.62546152 -2.1263661 1.6450882e-06 1.4290323e-38
0.63609153 -2.1256144 1.6689301e-06 1.4290323e-38
0.64546692 -2.1256144 1.6689301e-06 1.4290323e-38
0.65484244 -2.1256144 1.6689301e-06 1.4290323e-38
0.66421783 -2.1256144 1.6689301e-06 1.4290323e-38
0.67483234 -2.1248627 1.6927719e-06 1.4290323e-38
0.68530965 -2.1256144 1.6689301e-06 1.4290323e-38
0.6946851 -2.1256144 1.5497208e-06 1.4290323e-38
0.70517308 -2.1263661 1.5497208e-06 1.4290323e-38
0.71578282 -2.1256144 1.5497208e-06 1.4290323e-38
0.72515827 -2.1256144 1.5497208e-06 1.4290323e-38
0.73453373 -2.1256144 1.5497208e-06 1.4290323e-38
0.74390912 -2.1256144 1.5497208e-06 1.4290323e-38
0.75450337 -2.1248627 1.5497208e-06 1.4290323e-38
0.76500094 -2.1256144 1.5497208e-06 1.4290323e-38
0.77437639 -2.1256144 1.5497208e-06 1.4290323e-38
0.78488457 -2.1263661 1.5497208e-06 1.4290323e-38
0.79547405 -2.1256144 1.5497208e-06 1.4290323e-38
0.80484951 -2.1256144 1.5497208e-06 1.4290323e-38
0.81422496 -2.1256144 1.5497208e-06 1.4290323e-38
0.82480145 -2.1248627 1.5497208e-06 1.4290323e-38
0.83531678 -2.1256144 1.5497208e-06 1.4290323e-38
0.84469223 -2.1256144 1.5497208e-06 1.4290323e-38
0.85521823 -2.1263661 1.5497208e-06 1.4290323e-38
0.86578989 -2.1256144 1.5497208e-06 1.4290323e-38
0.87516534 -2.1256144 1.5497208e-06 1.4290323e-38
0.8845408 -2.1256144 1.5497208e-06 1.4290323e-38
0.89509934 -2.1248627 1.5497208e-06 1.4290323e-38
0.90563262 -2.1256144 1.5497208e-06 1.4290323e-38
0.91500801 -2.1256144 1.5497208e-06 1.4290323e-38
0.92438346 -2.1256144 1.5497208e-06 1.4290323e-38
0.93492973 -2.1263661 1.5497208e-06 1.4290323e-38
0.94548118 -2.1256144 1.5497208e-06 1.4290323e-38
0.95485657 -2.1256144 1.5497208e-06 1.4290323e-38
0.96423209 -2.1256144 1.5497208e-06 1.4290323e-38
0.97477037 -2.1248627 1.5497208e-06 1.4290323e-38
0.98532385 -2.1256144 1.5497208e-06 1.4290323e-38
0.99469924 -2.1256144 1.5497208e-06 1.4290323e-38
1.0040747 -2.1256144 1.5497208e-06 1.4290323e-38
1.0146412 -2.1263661 1.5497208e-06 1.4290323e-38
1.0251725 -2.1256144 1.5497208e-06 1.4290323e-38
1.0345479 -2.1256144 1.5497208e-06 1.4290323e-38
1.0450683 -2.1248627 1.5497208e-06 1.4290323e-38
1.0556396 -2.1256144 1.5497208e-06 1.4290323e-38
1.0650151 -2.1256144 1.5497208e-06 1.4290323e-38
1.0743905 -2.1256144 1.5497208e-06 1.4290323e-38
1.0849749 -2.1263661 1.5497208e-06 1.4290323e-38
1.0954883 -2.1256144 1.5497208e-06 1.4290323e-38
1.1048636 -2.1256144 1.5497208e-06 1.4290323e-38
1.1153662 -2.1248627 1.5497208e-06 1.4290323e-38
1.1259553 -2.1256144 1.5497208e-06 1.4290323e-38
1.1353309 -2.1256144 1.5497208e-06 1.4290323e-38
1.1447062 -2.1256144 1.5497208e-06 1.4290323e-38
1.1540817 -2.1256144 1.5497208e-06 1.4290323e-38
1.1646864 -2.1263661 1.5497208e-06 1.4290323e-38
1.1751795 -2.1256144 1.5497208e-06 1.4290323e-38
1.1845549 -2.1256144 1.5497208e-06 1.4290323e-38
1.1950372 -2.1248627 1.5497208e-06 1.4290323e-38
1.2056468 -2.1256144 1.5497208e-06 1.4290323e-38
1.2150222 -2.1256144 1.5199184e-06 1.4290323e-38
1.2243977 -2.1256146 1.4901161e-06 1.4290323e-38
1.233773 -2.1256146 1.4901161e-06 1.4290323e-38
1.2443979 -2.1263664 1.5020371e-06 1.4290323e-38
1.2548708 -2.1256146 1.4901161e-06 1.4290323e-38
1.2653354 -2.1248629 1.4781951e-06 1.4290323e-38
1.2759626 -2.1256146 1.4901161e-06 1.4290323e-38
1.285338 -2.1256146 1.4901161e-06 1.4290323e-38
1.2947135 -2.1256146 1.4901161e-06 1.4290323e-38
1.3040888 -2.1256146 1.4901161e-06 1.4290323e-38
1.3147316 -2.1263664 1.5020371e-06 1.4290323e-38
1.3251866 -2.1256146 1.4901161e-06 1.4290323e-38
1.3356333 -2.1248627 1.4781951e-06 1.4290323e-38
1.3462784 -2.1256146 1.4901161e-06 1.4290323e-38
1.3556538 -2.1256146 1.4901161e-06 1.4290323e-38
1.3650293 -2.1256146 1.4901161e-06 1.4290323e-38
1.3744048 -2.1256146 1.4901161e-06 1.4290323e-38
1.3837801 -2.1256146 1.4901161e-06 1.4290323e-38
1.3944433 -2.1263664 1.5020371e-06 1.4290323e-38
1.4048779 -2.1256146 1.4901161e-06 1.4290323e-38
1.4153044 -2.1248629 1.4781951e-06 1.4290323e-38
1.4259697 -2.1256146 1.4901161e-06 1.4290323e-38
1.4353452 -2.1256146 1.4901161e-06 1.4290323e-38
1.4447206 -2.1256146 1.4901161e-06 1.4290323e-38
1.4540961 -2.1256146 1.4901161e-06 1.4290323e-38
1.4647768 -2.1263664 1.5020371e-06 1.4290323e-38
1.4751939 -2.1256146 1.4901161e-06 1.4290323e-38
1.4856024 -2.1248629 1.4781951e-06 1.4290323e-38
1.4962856 -2.1256146 1.4901161e-06 1.4290323e-38
1.505661 -2.1256146 1.4901161e-06 1.4290323e-38
1.5150365 -2.1256146 1.4305115e-06 1.4290323e-38
1.5216289 -2.1293738 1.4305115e-06 1.4290323e-38
-1.4700414 -2.1143751 1.5497208e-06 1.4290323e-38
-1.4630365 -2.1143751 1.5497208e-06 1.4290323e-38
-1.4536966 -2.1143751 1.5497208e-06 1.4290323e-38
-1.4443568 -2.1143751 1.5497208e-06 1.4290323e-38
-1.4350169 -2.1143751 1.5497208e-06 1.4290323e-38
-1.4256771 -2.1143751 1.5497208e-06 1.4198127e-38
-1.4163373 -2.1143751 1.5497208e-06 9.3117586e-39
-1.4069974 -2.1143751 1.5497208e-06 7.3756504e-39
-1.3953224 -2.1143751 1.5497208e-06 7.3756504e-39
-1.3836478 -2.1143751 1.5497208e-06 7.3756504e-39
-1.3743079 -2.1143751 1.5497208e-06 7.3756504e-39
-1.3649681 -2.1143751 1.5497208e-06 7.3756504e-39
-1.3556283 -2.1143751 1.5497208e-06 7.3756504e-39
-1.3462883 -2.1143751 1.5497208e-06 7.3756504e-39
-1.3369485 -2.1143751 1.5497208e-06 7.3756504e-39
-1.3252736 -2.1143751 1.6291937e-06 7.3756504e-39
-1.3135988 -2.1143749 1.6689301e-06 7.3756504e-39
-1.3042588 -2.1143749 1.6689301e-06 7.3756504e-39
-1.294919 -2.1143749 1.6689301e-06 7.3756504e-39
-1.2855792 -2.1143749 1.6689301e-06 7.3756504e-39
-1.2762394 -2.1143749 1.6689301e-06 7.3756504e-39
-1.2668995 -2.1143749 1.6689301e-06 7.3756504e-39
-1.2552247 -2.1143749 1.6689301e-06 7.3756504e-39
-1.2435498 -2.1143749 1.6689301e-06 7.3756504e-39
-1.23421 -2.1143749 1.6689301e-06 7.3756504e-39
-1.2248702 -2.1143749 1.6689301e-06 7.3756504e-39
-1.2155303 -2.1143749 1.6689301e-06 7.3756504e-39
-1.2061905 -2.1143749 1.6689301e-06 7.3756504e-39
-1.1968505 -2.1143749 1.6689301e-06 7.3756504e-39
-1.1851758 -2.1143749 1.6689301e-06 7.3756504e-39
-1.173501 -2.1143749 1.6689301e-06 7.3756504e-39
-1.1641611 -2.1143749 1.6689301e-06 7.3756504e-39
-1.1548213 -2.1143749 1.6689301e-06 7.3756504e-39
-1.1454815 -2.1143749 1.6689301e-06 7.3756504e-39
-1.1361415 -2.1143749 1.6689301e-06 7.3756504e-39
-1.1268017 -2.1143749 1.6689301e-06 7.3756504e-39
-1.1151268 -2.1143749 1.6689301e-06 7.3756504e-39
-1.1034521 -2.1143749 1.6689301e-06 7.3756504e-39
-1.0941123 -2.1143749 1.6689301e-06 7.3756504e-39
-1.0847723 -2.1143749 1.6689301e-06 7.3756504e-39
-1.0754325 -2.1143749 1.6689301e-06 7.3756504e-39
-1.0660927 -2.1143749 1.6689301e-06 7.3756504e-39
-1.0567528 -2.1143749 1.6689301e-06 7.3756504e-39
-1.0450779 -2.1143749 1.7086664e-06 7.3756504e-39
-1.0334032 -2.1143749 1.7881393e-06 7.3756504e-39
-1.0240632 -2.1143749 1.7881393e-06 7.3756504e-39
-1.0147234 -2.1143749 1.7881393e-06 7.3756504e-39
-1.0053836 -2.1143749 1.7881393e-06 7.3756504e-39
-0.99604362 -2.1143749 1.7881393e-06 7.3756504e-39
-0.98670381 -2.1143749 1.7881393e-06 7.3756504e-39
-0.97502899 -2.1143749 1.7881393e-06 7.3756504e-39
-0.96335417 -2.1143749 1.7881393e-06 7.3756504e-39
-0.9540143 -2.1143749 1.7881393e-06 7.3756504e-39
-0.94467449 -2.1143749 1.7881393e-06 7.3756504e-39
-0.93533462 -2.1143749 1.7881393e-06 7.3756504e-39
-0.92599475 -2.1143749 1.7881393e-06 7.3756504e-39
-0.91665494 -2.1143749 1.7881393e-06 7.3756504e-39
-0.90498012 -2.1143749 1.7881393e-06 7.3756504e-39
-0.8933053 -2.1143749 1.7881393e-06 7.3756504e-39
-0.88396543 -2.1143749 1.7881393e-06 7.3756504e-39
-0.87462556 -2.1143749 1.7881393e-06 7.3756504e-39
-0.86528575 -2.1143749 1.7881393e-06 7.3756504e-39
-0.85594589 -2.1143749 1.7881393e-06 7.3756504e-39
-0.84660602 -2.1143749 1.7881393e-06 7.3756504e-39
-0.83493119 -2.1143749 1.7881393e-06 7.3756504e-39
-0.82325643 -2.1143749 1.7881393e-06 7.3756504e-39
-0.81391656 -2.1143749 1.7881393e-06 7.3756504e-39
-0.80457675 -2.1143749 1.7881393e-06 7.3756504e-39
-0.79523689 -2.1143749 1.7881393e-06 7.3756504e-39
-0.78589702 -2.1143749 1.7881393e-06 7.3756504e-39
-0.77655721 -2.1143749 1.7881393e-06 7.3756504e-39
-0.76488233 -2.1143749 1.8676122e-06 7.3756504e-39
-0.75320745 -2.1143746 2.0265579e-06 7.3756504e-39
-0.74386764 -2.1143746 2.0265579e-06 7.3756504e-39
-0.73452777 -2.1143746 2.0265579e-06 7.3756504e-39
-0.7251879 -2.1143746 2.0265579e-06 7.3756504e-39
-0.71584809 -2.1143746 2.0265579e-06 7.3756504e-39
-0.70650822 -2.1143746 2.0265579e-06 7.3756504e-39
-0.69483346 -2.1143746 2.0265579e-06 7.3756504e-39
-0.68315864 -2.1143746 2.0265579e-06 7.3756504e-39
-0.67381877 -2.1143746 2.0265579e-06 7.3756504e-39
-0.6644789 -2.1143746 2.0265579e-06 7.3756504e-39
-0.65513909 -2.1143746 2.0265579e-06 7.3756504e-39
-0.64579922 -2.1143746 2.0265579e-06 7.3756504e-39
-0.63645935 -2.1143746 2.0265579e-06 7.4689292e-39
-0.62684059 -2.1134863 0.00069904327 8.4895888e-39
-0.6155386 -2.1158075 0.0018090904 8.397033e-39
-0.60469329 -2.1137013 0.0028741597 8.304836e-39
-0.59451675 -2.1169031 0.0038738251 8.2126404e-39
-0.58481777 -2.1156847 0.0048264265 8.1204433e-39
-0.57513011 -2.1144681 0.0057778358 8.1197245e-39
-0.56545395 -2.1132526 0.0067281127 8.0275274e-39
-0.55412984 -2.1155708 0.0078404248 7.9353304e-39
-0.54446614 -2.1143546 0.0087895691 7.842776e-39
-0.53554803 -2.1169693 0.0096654892 7.7509391e-39
0.38594002 -2.1170664 0.0095899105 8.397033e-39
0.39500457 -2.1144702 0.0086995065 8.4892286e-39
0.40455225 -2.1156721 0.007761687 8.4895888e-39
0.41360095 -2.1130676 0.0068727732 8.4895888e-39
0.42315811 -2.1142683 0.005934 8.5817844e-39
0.43512073 -2.1157711 0.004758954 8.5821445e-39
0.44709975 -2.1172762 0.0035821199 8.6743402e-39
0.45613122 -2.114677 0.0026950836 8.6743416e-39
0.46572578 -2.11588 0.001752615 8.7665372e-39
0.47474113 -2.1132722 0.00086700916 8.7665386e-39
0.4843002 -2.1142745 8.0645084e-05 1.1528431e-38
0.49366248 -2.1143749 1.6689301e-06 1.4290323e-38
0.50300235 -2.1143749 1.6689301e-06 1.4290323e-38
0.51467717 -2.1143749 1.6689301e-06 1.4290323e-38
0.52635199 -2.1143749 1.6689301e-06 1.4290323e-38
0.53569186 -2.1143749 1.6689301e-06 1.4290323e-38
0.54503167 -2.1143749 1.6689301e-06 1.4290323e-38
0.55437154 -2.1143749 1.6689301e-06 1.4290323e-38
0.5637114 -2.1143749 1.6689301e-06 1.4290323e-38
0.57305121 -2.1143749 1.6689301e-06 1.4290323e-38
0.58472604 -2.1143749 1.6689301e-06 1.4290323e-38
0.59640086 -2.1143749 1.6689301e-06 1.4290323e-38
0.60574067 -2.1143749 1.6689301e-06 1.4290323e-38
0.6150806 -2.1143749 1.6689301e-06 1.4290323e-38
0.6244204 -2.1143749 1.6689301e-06 1.4290323e-38
0.63376027 -2.1143749 1.6689301e-06 1.4290323e-38
0.64310014 -2.1143749 1.6689301e-06 1.4290323e-38
0.6547749 -2.1143749 1.6689301e-06 1.4290323e-38
0.66644973 -2.1143749 1.6689301e-06 1.4290323e-38
0.67578959 -2.1143749 1.6689301e-06 1.4290323e-38
0.6851294 -2.1143749 1.6689301e-06 1.4290323e-38
0.69446927 -2.1143749 1.6689301e-06 1.4290323e-38
0.70380914 -2.1143749 1.6689301e-06 1.4290323e-38
0.71314895 -2.1143749 1.6689301e-06 1.4290323e-38
0.72482377 -2.1143749 1.6689301e-06 1.4290323e-38
0.73649859 -2.1143749 1.6689301e-06 1.4290323e-38
0.74583846 -2.1143749 1.6689301e-06 1.4290323e-38
0.75517833 -2.1143749 1.6689301e-06 1.4290323e-38
0.76451814 -2.1143749 1.6689301e-06 1.4290323e-38
0.77385801 -2.1143749 1.6689301e-06 1.4290323e-38
0.78319788 -2.1143749 1.6689301e-06 1.4290323e-38
0.7948727 -2.1143749 1.6689301e-06 1.4290323e-38
0.80654752 -2.1143749 1.6689301e-06 1.4290323e-38
0.81588733 -2.1143749 1.6689301e-06 1.4290323e-38
0.8252272 -2.1143749 1.6689301e-06 1.4290323e-38
0.83456707 -2.1143749 1.6689301e-06 1.4290323e-38
0.84390688 -2.1143749 1.6689301e-06 1.4290323e-38
0.85324675 -2.1143749 1.6689301e-06 1.4290323e-38
0.86492157 -2.1143749 1.6689301e-06 1.4290323e-38
0.87659639 -2.1143749 1.6689301e-06 1.4290323e-38
0.88593626 -2.1143749 1.6689301e-06 1.4290323e-38
0.89527607 -2.1143749 1.6689301e-06 1.4290323e-38
0.90461594 -2.1143749 1.6689301e-06 1.4290323e-38
0.91395581 -2.1143749 1.6689301e-06 1.4290323e-38
0.92329568 -2.1143751 1.6093254e-06 1.4290323e-38
0.93497056 -2.1143751 1.5497208e-06 1.4290323e-38
0.94664538 -2.1143751 1.5497208e-06 1.4290323e-38
0.95598519 -2.1143751 1.5497208e-06 1.4290323e-38
0.96532506 -2.1143751 1.5497208e-06 1.4290323e-38
0.97466493 -2.1143751 1.5497208e-06 1.4290323e-38
0.98400474 -2.1143751 1.5497208e-06 1.4290323e-38
0.9933446 -2.1143751 1.5497208e-06 1.4290323e-38
1.0050194 -2.1143751 1.5497208e-06 1.4290323e-38
1.0166942 -2.1143751 1.5497208e-06 1.4290323e-38
1.026034 -2.1143751 1.5497208e-06 1.4290323e-38
1.0353739 -2.1143751 1.5497208e-06 1.4290323e-38
1.0447137 -2.1143751 1.5497208e-06 1.4290323e-38
1.0540535 -2.1143751 1.5497208e-06 1.4290323e-38
1.0633935 -2.1143751 1.5497208e-06 1.4290323e-38
1.0750682 -2.1143751 1.5497208e-06 1.4290323e-38
1.0867431 -2.1143751 1.5497208e-06 1.4290323e-38
1.0960829 -2.1143751 1.5497208e-06 1.4290323e-38
1.1054227 -2.1143751 1.5497208e-06 1.4290323e-38
1.1147627 -2.1143751 1.5497208e-06 1.4290323e-38
1.1241025 -2.1143751 1.5497208e-06 1.4290323e-38
1.1334423 -2.1143751 1.5497208e-06 1.4290323e-38
1.1451172 -2.1143751 1.5497208e-06 1.4290323e-38
1.1567919 -2.1143751 1.5497208e-06 1.4290323e-38
1.1661319 -2.1143751 1.5497208e-06 1.4290323e-38
1.1754717 -2.1143751 1.5497208e-06 1.4290323e-38
1.1848115 -2.1143751 1.5497208e-06 1.4290323e-38
1.1941514 -2.1143751 1.5497208e-06 1.4290323e-38
1.2034912 -2.1143751 1.5497208e-06 1.4290323e-38
1.215166 -2.1143751 1.5497208e-06 1.4290323e-38
1.2268409 -2.1143751 1.5497208e-06 1.4290323e-38
1.2361807 -2.1143751 1.5497208e-06 1.4290323e-38
1.2455206 -2.1143751 1.5497208e-06 1.4290323e-38
1.2548604 -2.1143751 1.5497208e-06 1.4290323e-38
1.2642002 -2.1143751 1.5497208e-06 1.4290323e-38
1.2735401 -2.1143751 1.5497208e-06 1.4290323e-38
1.2852149 -2.1143751 1.5497208e-06 1.4290323e-38
1.2968898 -2.1143751 1.5497208e-06 1.4290323e-38
1.3062296 -2.1143751 1.5497208e-06 1.4290323e-38
1.3155694 -2.1143751 1.5497208e-06 1.4290323e-38
1.3249093 -2.1143751 1.5497208e-06 1.4290323e-38
1.3342491 -2.1143751 1.5497208e-06 1.4290323e-38
1.3435889 -2.1143751 1.5497208e-06 1.4290323e-38
1.3552638 -2.1143751 1.5497208e-06 1.4290323e-38
1.3669386 -2.1143751 1.5497208e-06 1.4290323e-38
1.3762785 -2.1143751 1.5497208e-06 1.4290323e-38
1.3856183 -2.1143751 1.5497208e-06 1.4290323e-38
1.3949581 -2.1143751 1.5497208e-06 1.4290323e-38
1.4042981 -2.1143751 1.5497208e-06 1.4290323e-38
1.4136379 -2.1143751 1.5497208e-06 1.4290323e-38
1.4253126 -2.1143751 1.5497208e-06 1.4290323e-38
1.4369875 -2.1143751 1.5497208e-06 1.4290323e-38
1.4463274 -2.1143751 1.4305115e-06 1.4290323e-38
1.4556674 -2.1143754 1.3113022e-06 1.4290323e-38
1.4650072 -2.1143754 1.3113022e-06 1.4290323e-38
1.4743471 -2.1143754 1.3113022e-06 1.4290323e-38
1.4836869 -2.1143754 1.3113022e-06 1.4290323e-38
1.4930267 -2.1143754 1.3113022e-06 1.4290323e-38
1.5047016 -2.1143754 1.3113022e-06 1.4290323e-38
1.5140414 -2.1143754 1.3113022e-06 1.4290323e-38
-1.4639473 -2.1069329 1.4305115e-06 1.4290323e-38
-1.4546311 -2.1069329 1.4305115e-06 1.4290323e-38
-1.4453149 -2.1069329 1.4305115e-06 1.4290323e-38
-1.4359984 -2.1069326 1.6689301e-06 1.4290323e-38
-1.4266821 -2.1069326 1.6689301e-06 1.4198127e-38
-1.4150368 -2.1069326 1.6689301e-06 9.1273674e-39
-1.4033914 -2.1069326 1.6689301e-06 7.3756504e-39
-1.3940752 -2.1069326 1.6689301e-06 7.3756504e-39
-1.3847588 -2.1069326 1.6689301e-06 7.3756504e-39
-1.3754425 -2.1069326 1.6689301e-06 7.3756504e-39
-1.3661263 -2.1069326 1.6689301e-06 7.3756504e-39
-1.35681 -2.1069326 1.6689301e-06 7.3756504e-39
-1.3451647 -2.1069326 1.6689301e-06 7.3756504e-39
-1.3335192 -2.1069326 1.6689301e-06 7.3756504e-39
-1.324203 -2.1069326 1.6689301e-06 7.3756504e-39
-1.3148868 -2.1069326 1.6689301e-06 7.3756504e-39
-1.3055704 -2.1069326 1.6689301e-06 7.3756504e-39
-1.2962542 -2.1069326 1.6689301e-06 7.3756504e-39
-1.286938 -2.1069326 1.6689301e-06 7.3756504e-39
-1.2752925 -2.1069326 1.6689301e-06 7.3756504e-39
-1.2636471 -2.1069326 1.6689301e-06 7.3756504e-39
-1.2543309 -2.1069326 1.6689301e-06 7.3756504e-39
-1.2450147 -2.1069326 1.6689301e-06 7.3756504e-39
-1.2356982 -2.1069326 1.6689301e-06 7.3756504e-39
-1.226382 -2.1069326 1.6689301e-06 7.3756504e-39
-1.2147366 -2.1069326 1.6689301e-06 7.3756504e-39
-1.2030914 -2.1069326 1.6689301e-06 7.3756504e-39
-1.1937749 -2.1069326 1.6689301e-06 7.3756504e-39
-1.1844587 -2.1069326 1.6689301e-06 7.3756504e-39
-1.1751425 -2.1069326 1.6689301e-06 7.3756504e-39
-1.1658261 -2.1069326 1.6689301e-06 7.3756504e-39
-1.1565099 -2.1069326 1.7285347e-06 7.3756504e-39
-1.1448644 -2.1069324 1.7881393e-06 7.3756504e-39
-1.133219 -2.1069324 1.7881393e-06 7.3756504e-39
-1.1239028 -2.1069324 1.7881393e-06 7.3756504e-39
-1.1145866 -2.1069324 1.7881393e-06 7.3756504e-39
-1.1052701 -2.1069324 1.7881393e-06 7.3756504e-39
-1.0959539 -2.1069324 1.7881393e-06 7.3756504e-39
-1.0866377 -2.1069324 1.7881393e-06 7.3756504e-39
-1.0749923 -2.1069324 1.7881393e-06 7.3756504e-39
-1.0633469 -2.1069324 1.7881393e-06 7.3756504e-39
-1.0540307 -2.1069324 1.7881393e-06 7.3756504e-39
-1.0447145 -2.1069324 1.7881393e-06 7.3756504e-39
-1.0353981 -2.1069324 1.7881393e-06 7.3756504e-39
-1.0260818 -2.1069324 1.7881393e-06 7.3756504e-39
-1.0167656 -2.1069324 1.7881393e-06 7.3756504e-39
-1.0051202 -2.1069324 1.7881393e-06 7.3756504e-39
-0.99347478 -2.1069324 1.7881393e-06 7.3756504e-39
-0.98415852 -2.1069324 1.7881393e-06 7.3756504e-39
-0.97484219 -2.1069324 1.7881393e-06 7.3756504e-39
-0.96552593 -2.1069324 1.7881393e-06 7.3756504e-39
-0.95620966 -2.1069324 1.7881393e-06 7.3756504e-39
-0.94689333 -2.1069324 1.7881393e-06 7.3756504e-39
-0.93524808 -2.1069324 1.7881393e-06 7.3756504e-39
-0.9236027 -2.1069324 1.7881393e-06 7.3756504e-39
-0.91428638 -2.1069324 1.7881393e-06 7.3756504e-39
-0.90497005 -2.1069324 1.7881393e-06 7.3756504e-39
-0.89565384 -2.1069324 1.7881393e-06 7.3756504e-39
-0.88633752 -2.1069324 1.7881393e-06 7.3756504e-39
-0.87469214 -2.1069322 1.8676122e-06 7.3756504e-39
-0.86304677 -2.1069322 1.9073486e-06 7.3756504e-39
-0.85373044 -2.1069322 1.9073486e-06 7.3756504e-39
-0.84441417 -2.1069322 1.9073486e-06 7.3756504e-39
-0.83509791 -2.1069322 1.9073486e-06 7.3756504e-39
-0.82578158 -2.1069322 1.9073486e-06 7.3756504e-39
-0.81646538 -2.1069322 1.9073486e-06 7.3756504e-39
-0.80482 -2.1069322 1.9073486e-06 7.3756504e-39
-0.79317462 -2.1069322 1.9073486e-06 7.3756504e-39
-0.78385836 -2.1069322 1.9073486e-06 7.3756504e-39
-0.77454209 -2.1069322 1.9073486e-06 7.3756504e-39
-0.76522577 -2.1069322 1.9073486e-06 7.3756504e-39
-0.7559095 -2.1069322 1.9073486e-06 7.3756504e-39
-0.74659324 -2.1069322 1.9073486e-06 7.3756504e-39
-0.73494786 -2.1069322 1.9073486e-06 7.3756504e-39
-0.72330248 -2.1069322 1.9073486e-06 7.3756504e-39
-0.71398628 -2.1069322 1.9073486e-06 7.3756504e-39
-0.70466995 -2.1069322 1.9073486e-06 7.3756504e-39
-0.69535363 -2.1069322 1.9073486e-06 7.3756504e-39
-0.68603742 -2.1069322 1.9073486e-06 7.3756504e-39
-0.6767211 -2.1069322 1.9073486e-06 7.3756504e-39
-0.66507578 -2.1069322 1.9073486e-06 7.3756504e-39
-0.6534304 -2.1069322 1.9073486e-06 7.3756504e-39
-0.64411414 -2.1069322 1.9073486e-06 7.3756504e-39
-0.63476753 -2.1068368 7.7009201e-05 7.8391607e-39
-0.62513638 -2.1058347 0.00086635351 8.4895888e-39
-0.61545032 -2.1046267 0.0018177032 8.397033e-39
-0.60577565 -2.1034203 0.0027679205 8.304836e-39
-0.59450442 -2.1057265 0.0038749278 8.2126404e-39
-0.58484215 -2.1045194 0.0048238933 8.1200846e-39
-0.57545131 -2.1045821 0.0057462454 8.027889e-39
-0.56391281 -2.1056104 0.0068795085 8.0275274e-39
-0.5542742 -2.104404 0.0078262091 7.9353304e-39
-0.54464698 -2.1031995 0.0087717175 7.8431348e-39
-0.53576225 -2.1058052 0.0096443892 7.750579e-39
0.38547421 -2.1070554 0.0096356468 8.397033e-39
0.3935557 -2.1031098 0.0088418722 8.3973932e-39
0.40306541 -2.1043005 0.0079076886 8.4892286e-39
0.41496864 -2.1057904 0.0067384243 8.4895888e-39
0.42733192 -2.1048653 0.0055240393 8.5817858e-39
0.43589997 -2.1047001 0.0046823621 8.5821445e-39
0.44544679 -2.1058927 0.0037445724 8.6739814e-39
0.45444289 -2.1033022 0.0028609037 8.6743416e-39
0.46399915 -2.1044939 0.0019222498 8.7665372e-39
0.47356656 -2.1056874 0.00098228455 8.7665386e-39
0.48311704 -2.1067576 0.00013935566 1.1067452e-38
0.49480137 -2.1069324 1.7881393e-06 1.4290323e-38
0.50644672 -2.1069324 1.7881393e-06 1.4290323e-38
0.51576293 -2.1069324 1.7881393e-06 1.4290323e-38
0.52507925 -2.1069324 1.7881393e-06 1.4290323e-38
0.53439558 -2.1069324 1.7881393e-06 1.4290323e-38
0.54371184 -2.1069324 1.7881393e-06 1.4290323e-38
0.55302811 -2.1069324 1.7881393e-06 1.4290323e-38
0.56467348 -2.1069324 1.7881393e-06 1.4290323e-38
0.57631886 -2.1069324 1.7881393e-06 1.4290323e-38
0.58563507 -2.1069324 1.7881393e-06 1.4290323e-38
0.59495139 -2.1069324 1.7881393e-06 1.4290323e-38
0.60426772 -2.1069324 1.7881393e-06 1.4290323e-38
0.61358392 -2.1069324 1.7881393e-06 1.4290323e-38
0.6252293 -2.1069324 1.7881393e-06 1.4290323e-38
0.63687468 -2.1069326 1.7285347e-06 1.4290323e-38
0.646191 -2.1069326 1.6689301e-06 1.4290323e-38
0.65550733 -2.1069326 1.6689301e-06 1.4290323e-38
0.66482353 -2.1069326 1.6689301e-06 1.4290323e-38
